ply
format ascii 1.0
comment VTK generated PLY File
obj_info vtkPolyData points and polygons : vtk4.0
element vertex 1552
property float x
property float y
property float z
element face 0
property list uchar int vertex_indices
end_header
0.0116162 -0.0106061 0.030303
0.0116162 -0.0106061 0.0313131
0.0116162 -0.0106061 0.0323232
0.0116162 -0.0106061 0.0333333
0.0116162 -0.0106061 0.0343434
0.0116162 -0.0106061 0.0353535
0.0116162 -0.0106061 0.10101
0.0116162 -0.00959596 0
0.0116162 -0.00959596 0.0010101
0.0116162 -0.00959596 0.0020202
0.0116162 -0.00959596 0.0030303
0.0116162 -0.00959596 0.0040404
0.0116162 -0.00959596 0.00505051
0.0116162 -0.00959596 0.00606061
0.0116162 -0.00959596 0.00707071
0.0116162 -0.00959596 0.00808081
0.0116162 -0.00959596 0.00909091
0.0116162 -0.00959596 0.010101
0.0116162 -0.00959596 0.0111111
0.0116162 -0.00959596 0.0121212
0.0116162 -0.00959596 0.0131313
0.0116162 -0.00959596 0.0141414
0.0116162 -0.00959596 0.0151515
0.0116162 -0.00959596 0.0161616
0.0116162 -0.00959596 0.0171717
0.0116162 -0.00959596 0.0181818
0.0116162 -0.00959596 0.0191919
0.0116162 -0.00959596 0.020202
0.0116162 -0.00959596 0.0212121
0.0116162 -0.00959596 0.0222222
0.0116162 -0.00959596 0.0232323
0.0116162 -0.00959596 0.0242424
0.0116162 -0.00959596 0.0252525
0.0116162 -0.00959596 0.0262626
0.0116162 -0.00959596 0.0272727
0.0116162 -0.00959596 0.0282828
0.0116162 -0.00959596 0.0292929
0.0116162 -0.00959596 0.030303
0.0116162 -0.00959596 0.0313131
0.0116162 -0.00959596 0.0323232
0.0116162 -0.00959596 0.0333333
0.0116162 -0.00959596 0.0343434
0.0116162 -0.00959596 0.0353535
0.0116162 -0.00959596 0.10101
0.0116162 -0.00858586 0
0.0116162 -0.00858586 0.0010101
0.0116162 -0.00858586 0.0020202
0.0116162 -0.00858586 0.0030303
0.0116162 -0.00858586 0.0040404
0.0116162 -0.00858586 0.00505051
0.0116162 -0.00858586 0.00606061
0.0116162 -0.00858586 0.00707071
0.0116162 -0.00858586 0.00808081
0.0116162 -0.00858586 0.00909091
0.0116162 -0.00858586 0.010101
0.0116162 -0.00858586 0.0111111
0.0116162 -0.00858586 0.0121212
0.0116162 -0.00858586 0.0131313
0.0116162 -0.00858586 0.0141414
0.0116162 -0.00858586 0.0151515
0.0116162 -0.00858586 0.0161616
0.0116162 -0.00858586 0.0171717
0.0116162 -0.00858586 0.0181818
0.0116162 -0.00858586 0.0191919
0.0116162 -0.00858586 0.020202
0.0116162 -0.00858586 0.0212121
0.0116162 -0.00858586 0.0222222
0.0116162 -0.00858586 0.0232323
0.0116162 -0.00858586 0.0242424
0.0116162 -0.00858586 0.0252525
0.0116162 -0.00858586 0.0262626
0.0116162 -0.00858586 0.0272727
0.0116162 -0.00858586 0.0282828
0.0116162 -0.00858586 0.0292929
0.0116162 -0.00858586 0.030303
0.0116162 -0.00858586 0.0313131
0.0116162 -0.00858586 0.0323232
0.0116162 -0.00858586 0.0333333
0.0116162 -0.00858586 0.0343434
0.0116162 -0.00858586 0.0353535
0.0116162 -0.00858586 0.10101
0.0116162 -0.00757576 0
0.0116162 -0.00757576 0.0010101
0.0116162 -0.00757576 0.0020202
0.0116162 -0.00757576 0.0030303
0.0116162 -0.00757576 0.0040404
0.0116162 -0.00757576 0.00505051
0.0116162 -0.00757576 0.00606061
0.0116162 -0.00757576 0.00707071
0.0116162 -0.00757576 0.00808081
0.0116162 -0.00757576 0.00909091
0.0116162 -0.00757576 0.010101
0.0116162 -0.00757576 0.0111111
0.0116162 -0.00757576 0.0121212
0.0116162 -0.00757576 0.0131313
0.0116162 -0.00757576 0.0141414
0.0116162 -0.00757576 0.0151515
0.0116162 -0.00757576 0.0161616
0.0116162 -0.00757576 0.0171717
0.0116162 -0.00757576 0.0181818
0.0116162 -0.00757576 0.0191919
0.0116162 -0.00757576 0.020202
0.0116162 -0.00757576 0.0212121
0.0116162 -0.00757576 0.0222222
0.0116162 -0.00757576 0.0232323
0.0116162 -0.00757576 0.0242424
0.0116162 -0.00757576 0.0252525
0.0116162 -0.00757576 0.0262626
0.0116162 -0.00757576 0.0272727
0.0116162 -0.00757576 0.0282828
0.0116162 -0.00757576 0.0292929
0.0116162 -0.00757576 0.030303
0.0116162 -0.00757576 0.0313131
0.0116162 -0.00757576 0.0323232
0.0116162 -0.00757576 0.0333333
0.0116162 -0.00757576 0.0343434
0.0116162 -0.00757576 0.0353535
0.0116162 -0.00757576 0.10101
0.0116162 -0.00656566 0
0.0116162 -0.00656566 0.0010101
0.0116162 -0.00656566 0.0020202
0.0116162 -0.00656566 0.0030303
0.0116162 -0.00656566 0.0040404
0.0116162 -0.00656566 0.00505051
0.0116162 -0.00656566 0.00606061
0.0116162 -0.00656566 0.00707071
0.0116162 -0.00656566 0.00808081
0.0116162 -0.00656566 0.00909091
0.0116162 -0.00656566 0.010101
0.0116162 -0.00656566 0.0111111
0.0116162 -0.00656566 0.0121212
0.0116162 -0.00656566 0.0131313
0.0116162 -0.00656566 0.0141414
0.0116162 -0.00656566 0.0151515
0.0116162 -0.00656566 0.0161616
0.0116162 -0.00656566 0.0171717
0.0116162 -0.00656566 0.0181818
0.0116162 -0.00656566 0.0191919
0.0116162 -0.00656566 0.020202
0.0116162 -0.00656566 0.0212121
0.0116162 -0.00656566 0.0222222
0.0116162 -0.00656566 0.0232323
0.0116162 -0.00656566 0.0242424
0.0116162 -0.00656566 0.0252525
0.0116162 -0.00656566 0.0262626
0.0116162 -0.00656566 0.0272727
0.0116162 -0.00656566 0.0282828
0.0116162 -0.00656566 0.0292929
0.0116162 -0.00656566 0.030303
0.0116162 -0.00656566 0.0313131
0.0116162 -0.00656566 0.0323232
0.0116162 -0.00656566 0.0333333
0.0116162 -0.00656566 0.0343434
0.0116162 -0.00656566 0.0353535
0.0116162 -0.00656566 0.10101
0.0116162 -0.00555556 0
0.0116162 -0.00555556 0.0010101
0.0116162 -0.00555556 0.0020202
0.0116162 -0.00555556 0.0030303
0.0116162 -0.00555556 0.0040404
0.0116162 -0.00555556 0.00505051
0.0116162 -0.00555556 0.00606061
0.0116162 -0.00555556 0.00707071
0.0116162 -0.00555556 0.00808081
0.0116162 -0.00555556 0.00909091
0.0116162 -0.00555556 0.010101
0.0116162 -0.00555556 0.0111111
0.0116162 -0.00555556 0.0121212
0.0116162 -0.00555556 0.0131313
0.0116162 -0.00555556 0.0141414
0.0116162 -0.00555556 0.0151515
0.0116162 -0.00555556 0.0161616
0.0116162 -0.00555556 0.0171717
0.0116162 -0.00555556 0.0181818
0.0116162 -0.00555556 0.0191919
0.0116162 -0.00555556 0.020202
0.0116162 -0.00555556 0.0212121
0.0116162 -0.00555556 0.0222222
0.0116162 -0.00555556 0.0232323
0.0116162 -0.00555556 0.0242424
0.0116162 -0.00555556 0.0252525
0.0116162 -0.00555556 0.0262626
0.0116162 -0.00555556 0.0272727
0.0116162 -0.00555556 0.0282828
0.0116162 -0.00555556 0.0292929
0.0116162 -0.00555556 0.030303
0.0116162 -0.00555556 0.0313131
0.0116162 -0.00555556 0.0323232
0.0116162 -0.00555556 0.0333333
0.0116162 -0.00555556 0.0343434
0.0116162 -0.00555556 0.0353535
0.0116162 -0.00555556 0.0363636
0.0116162 -0.00555556 0.10101
0.0116162 -0.00454545 0
0.0116162 -0.00454545 0.0010101
0.0116162 -0.00454545 0.0020202
0.0116162 -0.00454545 0.0030303
0.0116162 -0.00454545 0.0040404
0.0116162 -0.00454545 0.00505051
0.0116162 -0.00454545 0.00606061
0.0116162 -0.00454545 0.00707071
0.0116162 -0.00454545 0.00808081
0.0116162 -0.00454545 0.00909091
0.0116162 -0.00454545 0.010101
0.0116162 -0.00454545 0.0111111
0.0116162 -0.00454545 0.0121212
0.0116162 -0.00454545 0.0131313
0.0116162 -0.00454545 0.0141414
0.0116162 -0.00454545 0.0151515
0.0116162 -0.00454545 0.0161616
0.0116162 -0.00454545 0.0171717
0.0116162 -0.00454545 0.0181818
0.0116162 -0.00454545 0.0191919
0.0116162 -0.00454545 0.020202
0.0116162 -0.00454545 0.0212121
0.0116162 -0.00454545 0.0222222
0.0116162 -0.00454545 0.0232323
0.0116162 -0.00454545 0.0242424
0.0116162 -0.00454545 0.0252525
0.0116162 -0.00454545 0.0262626
0.0116162 -0.00454545 0.0272727
0.0116162 -0.00454545 0.0282828
0.0116162 -0.00454545 0.0292929
0.0116162 -0.00454545 0.030303
0.0116162 -0.00454545 0.0313131
0.0116162 -0.00454545 0.0323232
0.0116162 -0.00454545 0.0333333
0.0116162 -0.00454545 0.0343434
0.0116162 -0.00454545 0.0353535
0.0116162 -0.00454545 0.10101
0.0116162 -0.00353535 0
0.0116162 -0.00353535 0.0010101
0.0116162 -0.00353535 0.0020202
0.0116162 -0.00353535 0.0030303
0.0116162 -0.00353535 0.0040404
0.0116162 -0.00353535 0.00505051
0.0116162 -0.00353535 0.00606061
0.0116162 -0.00353535 0.00707071
0.0116162 -0.00353535 0.00808081
0.0116162 -0.00353535 0.00909091
0.0116162 -0.00353535 0.010101
0.0116162 -0.00353535 0.0111111
0.0116162 -0.00353535 0.0121212
0.0116162 -0.00353535 0.0131313
0.0116162 -0.00353535 0.0141414
0.0116162 -0.00353535 0.0151515
0.0116162 -0.00353535 0.0161616
0.0116162 -0.00353535 0.0171717
0.0116162 -0.00353535 0.0181818
0.0116162 -0.00353535 0.0191919
0.0116162 -0.00353535 0.020202
0.0116162 -0.00353535 0.0212121
0.0116162 -0.00353535 0.0222222
0.0116162 -0.00353535 0.0232323
0.0116162 -0.00353535 0.0242424
0.0116162 -0.00353535 0.0252525
0.0116162 -0.00353535 0.0262626
0.0116162 -0.00353535 0.0272727
0.0116162 -0.00353535 0.0282828
0.0116162 -0.00353535 0.0292929
0.0116162 -0.00353535 0.030303
0.0116162 -0.00353535 0.0313131
0.0116162 -0.00353535 0.0323232
0.0116162 -0.00353535 0.0333333
0.0116162 -0.00353535 0.0343434
0.0116162 -0.00353535 0.0353535
0.0116162 -0.00353535 0.10101
0.0116162 -0.00252525 0
0.0116162 -0.00252525 0.0010101
0.0116162 -0.00252525 0.0020202
0.0116162 -0.00252525 0.0030303
0.0116162 -0.00252525 0.0040404
0.0116162 -0.00252525 0.00505051
0.0116162 -0.00252525 0.00606061
0.0116162 -0.00252525 0.00707071
0.0116162 -0.00252525 0.00808081
0.0116162 -0.00252525 0.00909091
0.0116162 -0.00252525 0.010101
0.0116162 -0.00252525 0.0111111
0.0116162 -0.00252525 0.0121212
0.0116162 -0.00252525 0.0131313
0.0116162 -0.00252525 0.0141414
0.0116162 -0.00252525 0.0151515
0.0116162 -0.00252525 0.0161616
0.0116162 -0.00252525 0.0171717
0.0116162 -0.00252525 0.0181818
0.0116162 -0.00252525 0.0191919
0.0116162 -0.00252525 0.020202
0.0116162 -0.00252525 0.0212121
0.0116162 -0.00252525 0.0222222
0.0116162 -0.00252525 0.0232323
0.0116162 -0.00252525 0.0242424
0.0116162 -0.00252525 0.0252525
0.0116162 -0.00252525 0.0262626
0.0116162 -0.00252525 0.0272727
0.0116162 -0.00252525 0.0282828
0.0116162 -0.00252525 0.0292929
0.0116162 -0.00252525 0.030303
0.0116162 -0.00252525 0.0313131
0.0116162 -0.00252525 0.0323232
0.0116162 -0.00252525 0.0333333
0.0116162 -0.00252525 0.0343434
0.0116162 -0.00252525 0.0353535
0.0116162 -0.00252525 0.10101
0.0116162 -0.00151515 0
0.0116162 -0.00151515 0.0010101
0.0116162 -0.00151515 0.0020202
0.0116162 -0.00151515 0.0030303
0.0116162 -0.00151515 0.0040404
0.0116162 -0.00151515 0.00505051
0.0116162 -0.00151515 0.00606061
0.0116162 -0.00151515 0.00707071
0.0116162 -0.00151515 0.00808081
0.0116162 -0.00151515 0.00909091
0.0116162 -0.00151515 0.010101
0.0116162 -0.00151515 0.0111111
0.0116162 -0.00151515 0.0121212
0.0116162 -0.00151515 0.0131313
0.0116162 -0.00151515 0.0141414
0.0116162 -0.00151515 0.0151515
0.0116162 -0.00151515 0.0161616
0.0116162 -0.00151515 0.0171717
0.0116162 -0.00151515 0.0181818
0.0116162 -0.00151515 0.0191919
0.0116162 -0.00151515 0.020202
0.0116162 -0.00151515 0.0212121
0.0116162 -0.00151515 0.0222222
0.0116162 -0.00151515 0.0232323
0.0116162 -0.00151515 0.0242424
0.0116162 -0.00151515 0.0252525
0.0116162 -0.00151515 0.0262626
0.0116162 -0.00151515 0.0272727
0.0116162 -0.00151515 0.0282828
0.0116162 -0.00151515 0.0292929
0.0116162 -0.00151515 0.030303
0.0116162 -0.00151515 0.0313131
0.0116162 -0.00151515 0.0323232
0.0116162 -0.00151515 0.0333333
0.0116162 -0.00151515 0.0343434
0.0116162 -0.00151515 0.0353535
0.0116162 -0.00151515 0.10101
0.0116162 -0.000505051 0
0.0116162 -0.000505051 0.0010101
0.0116162 -0.000505051 0.0020202
0.0116162 -0.000505051 0.0030303
0.0116162 -0.000505051 0.0040404
0.0116162 -0.000505051 0.00505051
0.0116162 -0.000505051 0.00606061
0.0116162 -0.000505051 0.00707071
0.0116162 -0.000505051 0.00808081
0.0116162 -0.000505051 0.00909091
0.0116162 -0.000505051 0.010101
0.0116162 -0.000505051 0.0111111
0.0116162 -0.000505051 0.0121212
0.0116162 -0.000505051 0.0131313
0.0116162 -0.000505051 0.0141414
0.0116162 -0.000505051 0.0151515
0.0116162 -0.000505051 0.0161616
0.0116162 -0.000505051 0.0171717
0.0116162 -0.000505051 0.0181818
0.0116162 -0.000505051 0.0191919
0.0116162 -0.000505051 0.020202
0.0116162 -0.000505051 0.0212121
0.0116162 -0.000505051 0.0222222
0.0116162 -0.000505051 0.0232323
0.0116162 -0.000505051 0.0242424
0.0116162 -0.000505051 0.0252525
0.0116162 -0.000505051 0.0262626
0.0116162 -0.000505051 0.0272727
0.0116162 -0.000505051 0.0282828
0.0116162 -0.000505051 0.0292929
0.0116162 -0.000505051 0.030303
0.0116162 -0.000505051 0.0313131
0.0116162 -0.000505051 0.0323232
0.0116162 -0.000505051 0.0333333
0.0116162 -0.000505051 0.0343434
0.0116162 -0.000505051 0.0353535
0.0116162 -0.000505051 0.0363636
0.0116162 -0.000505051 0.10101
0.0116162 0.00050505 0
0.0116162 0.00050505 0.0010101
0.0116162 0.00050505 0.0020202
0.0116162 0.00050505 0.0030303
0.0116162 0.00050505 0.0040404
0.0116162 0.00050505 0.00505051
0.0116162 0.00050505 0.00606061
0.0116162 0.00050505 0.00707071
0.0116162 0.00050505 0.00808081
0.0116162 0.00050505 0.00909091
0.0116162 0.00050505 0.010101
0.0116162 0.00050505 0.0111111
0.0116162 0.00050505 0.0121212
0.0116162 0.00050505 0.0131313
0.0116162 0.00050505 0.0141414
0.0116162 0.00050505 0.0151515
0.0116162 0.00050505 0.0161616
0.0116162 0.00050505 0.0171717
0.0116162 0.00050505 0.0181818
0.0116162 0.00050505 0.0191919
0.0116162 0.00050505 0.020202
0.0116162 0.00050505 0.0212121
0.0116162 0.00050505 0.0222222
0.0116162 0.00050505 0.0232323
0.0116162 0.00050505 0.0242424
0.0116162 0.00050505 0.0252525
0.0116162 0.00050505 0.0262626
0.0116162 0.00050505 0.0272727
0.0116162 0.00050505 0.0282828
0.0116162 0.00050505 0.0292929
0.0116162 0.00050505 0.030303
0.0116162 0.00050505 0.0313131
0.0116162 0.00050505 0.0323232
0.0116162 0.00050505 0.0333333
0.0116162 0.00050505 0.0343434
0.0116162 0.00050505 0.0353535
0.0116162 0.00050505 0.0363636
0.0116162 0.00050505 0.10101
0.0116162 0.00151515 0
0.0116162 0.00151515 0.0010101
0.0116162 0.00151515 0.0020202
0.0116162 0.00151515 0.0030303
0.0116162 0.00151515 0.0040404
0.0116162 0.00151515 0.00505051
0.0116162 0.00151515 0.00606061
0.0116162 0.00151515 0.00707071
0.0116162 0.00151515 0.00808081
0.0116162 0.00151515 0.00909091
0.0116162 0.00151515 0.010101
0.0116162 0.00151515 0.0111111
0.0116162 0.00151515 0.0121212
0.0116162 0.00151515 0.0131313
0.0116162 0.00151515 0.0141414
0.0116162 0.00151515 0.0151515
0.0116162 0.00151515 0.0161616
0.0116162 0.00151515 0.0171717
0.0116162 0.00151515 0.0181818
0.0116162 0.00151515 0.0191919
0.0116162 0.00151515 0.020202
0.0116162 0.00151515 0.0212121
0.0116162 0.00151515 0.0222222
0.0116162 0.00151515 0.0232323
0.0116162 0.00151515 0.0242424
0.0116162 0.00151515 0.0252525
0.0116162 0.00151515 0.0262626
0.0116162 0.00151515 0.0272727
0.0116162 0.00151515 0.0282828
0.0116162 0.00151515 0.0292929
0.0116162 0.00151515 0.030303
0.0116162 0.00151515 0.0313131
0.0116162 0.00151515 0.0323232
0.0116162 0.00151515 0.0333333
0.0116162 0.00151515 0.0343434
0.0116162 0.00151515 0.0353535
0.0116162 0.00151515 0.0363636
0.0116162 0.00151515 0.10101
0.0116162 0.00252525 0
0.0116162 0.00252525 0.0010101
0.0116162 0.00252525 0.0020202
0.0116162 0.00252525 0.0030303
0.0116162 0.00252525 0.0040404
0.0116162 0.00252525 0.00505051
0.0116162 0.00252525 0.00606061
0.0116162 0.00252525 0.00707071
0.0116162 0.00252525 0.00808081
0.0116162 0.00252525 0.00909091
0.0116162 0.00252525 0.010101
0.0116162 0.00252525 0.0111111
0.0116162 0.00252525 0.0121212
0.0116162 0.00252525 0.0131313
0.0116162 0.00252525 0.0141414
0.0116162 0.00252525 0.0151515
0.0116162 0.00252525 0.0161616
0.0116162 0.00252525 0.0171717
0.0116162 0.00252525 0.0181818
0.0116162 0.00252525 0.0191919
0.0116162 0.00252525 0.020202
0.0116162 0.00252525 0.0212121
0.0116162 0.00252525 0.0222222
0.0116162 0.00252525 0.0232323
0.0116162 0.00252525 0.0242424
0.0116162 0.00252525 0.0252525
0.0116162 0.00252525 0.0262626
0.0116162 0.00252525 0.0272727
0.0116162 0.00252525 0.0282828
0.0116162 0.00252525 0.0292929
0.0116162 0.00252525 0.030303
0.0116162 0.00252525 0.0313131
0.0116162 0.00252525 0.0323232
0.0116162 0.00252525 0.0333333
0.0116162 0.00252525 0.0343434
0.0116162 0.00252525 0.0353535
0.0116162 0.00252525 0.0363636
0.0116162 0.00252525 0.10101
0.0116162 0.00353535 0
0.0116162 0.00353535 0.0010101
0.0116162 0.00353535 0.0020202
0.0116162 0.00353535 0.0030303
0.0116162 0.00353535 0.0040404
0.0116162 0.00353535 0.00505051
0.0116162 0.00353535 0.00606061
0.0116162 0.00353535 0.00707071
0.0116162 0.00353535 0.00808081
0.0116162 0.00353535 0.00909091
0.0116162 0.00353535 0.010101
0.0116162 0.00353535 0.0111111
0.0116162 0.00353535 0.0121212
0.0116162 0.00353535 0.0131313
0.0116162 0.00353535 0.0141414
0.0116162 0.00353535 0.0151515
0.0116162 0.00353535 0.0161616
0.0116162 0.00353535 0.0171717
0.0116162 0.00353535 0.0181818
0.0116162 0.00353535 0.0191919
0.0116162 0.00353535 0.020202
0.0116162 0.00353535 0.0212121
0.0116162 0.00353535 0.0222222
0.0116162 0.00353535 0.0232323
0.0116162 0.00353535 0.0242424
0.0116162 0.00353535 0.0252525
0.0116162 0.00353535 0.0262626
0.0116162 0.00353535 0.0272727
0.0116162 0.00353535 0.0282828
0.0116162 0.00353535 0.0292929
0.0116162 0.00353535 0.030303
0.0116162 0.00353535 0.0313131
0.0116162 0.00353535 0.0323232
0.0116162 0.00353535 0.0333333
0.0116162 0.00353535 0.0343434
0.0116162 0.00353535 0.0353535
0.0116162 0.00353535 0.0363636
0.0116162 0.00353535 0.10101
0.0116162 0.00454545 0
0.0116162 0.00454545 0.0010101
0.0116162 0.00454545 0.0020202
0.0116162 0.00454545 0.0030303
0.0116162 0.00454545 0.0040404
0.0116162 0.00454545 0.00505051
0.0116162 0.00454545 0.00606061
0.0116162 0.00454545 0.00707071
0.0116162 0.00454545 0.00808081
0.0116162 0.00454545 0.00909091
0.0116162 0.00454545 0.010101
0.0116162 0.00454545 0.0111111
0.0116162 0.00454545 0.0121212
0.0116162 0.00454545 0.0131313
0.0116162 0.00454545 0.0141414
0.0116162 0.00454545 0.0151515
0.0116162 0.00454545 0.0161616
0.0116162 0.00454545 0.0171717
0.0116162 0.00454545 0.0181818
0.0116162 0.00454545 0.0191919
0.0116162 0.00454545 0.020202
0.0116162 0.00454545 0.0212121
0.0116162 0.00454545 0.0222222
0.0116162 0.00454545 0.0232323
0.0116162 0.00454545 0.0242424
0.0116162 0.00454545 0.0252525
0.0116162 0.00454545 0.0262626
0.0116162 0.00454545 0.0272727
0.0116162 0.00454545 0.0282828
0.0116162 0.00454545 0.0292929
0.0116162 0.00454545 0.030303
0.0116162 0.00454545 0.0313131
0.0116162 0.00454545 0.0323232
0.0116162 0.00454545 0.0333333
0.0116162 0.00454545 0.0343434
0.0116162 0.00454545 0.0353535
0.0116162 0.00454545 0.0363636
0.0116162 0.00454545 0.10101
0.0116162 0.00555556 0
0.0116162 0.00555556 0.0010101
0.0116162 0.00555556 0.0020202
0.0116162 0.00555556 0.0030303
0.0116162 0.00555556 0.0040404
0.0116162 0.00555556 0.00505051
0.0116162 0.00555556 0.00606061
0.0116162 0.00555556 0.00707071
0.0116162 0.00555556 0.00808081
0.0116162 0.00555556 0.00909091
0.0116162 0.00555556 0.010101
0.0116162 0.00555556 0.0111111
0.0116162 0.00555556 0.0121212
0.0116162 0.00555556 0.0131313
0.0116162 0.00555556 0.0141414
0.0116162 0.00555556 0.0151515
0.0116162 0.00555556 0.0161616
0.0116162 0.00555556 0.0171717
0.0116162 0.00555556 0.0181818
0.0116162 0.00555556 0.0191919
0.0116162 0.00555556 0.020202
0.0116162 0.00555556 0.0212121
0.0116162 0.00555556 0.0222222
0.0116162 0.00555556 0.0232323
0.0116162 0.00555556 0.0242424
0.0116162 0.00555556 0.0252525
0.0116162 0.00555556 0.0262626
0.0116162 0.00555556 0.0272727
0.0116162 0.00555556 0.0282828
0.0116162 0.00555556 0.0292929
0.0116162 0.00555556 0.030303
0.0116162 0.00555556 0.0313131
0.0116162 0.00555556 0.0323232
0.0116162 0.00555556 0.0333333
0.0116162 0.00555556 0.0343434
0.0116162 0.00555556 0.0353535
0.0116162 0.00555556 0.0363636
0.0116162 0.00555556 0.10101
0.0116162 0.00656566 0
0.0116162 0.00656566 0.0010101
0.0116162 0.00656566 0.0020202
0.0116162 0.00656566 0.0030303
0.0116162 0.00656566 0.0040404
0.0116162 0.00656566 0.00505051
0.0116162 0.00656566 0.00606061
0.0116162 0.00656566 0.00707071
0.0116162 0.00656566 0.00808081
0.0116162 0.00656566 0.00909091
0.0116162 0.00656566 0.010101
0.0116162 0.00656566 0.0111111
0.0116162 0.00656566 0.0121212
0.0116162 0.00656566 0.0131313
0.0116162 0.00656566 0.0141414
0.0116162 0.00656566 0.0151515
0.0116162 0.00656566 0.0161616
0.0116162 0.00656566 0.0171717
0.0116162 0.00656566 0.0181818
0.0116162 0.00656566 0.0191919
0.0116162 0.00656566 0.020202
0.0116162 0.00656566 0.0212121
0.0116162 0.00656566 0.0222222
0.0116162 0.00656566 0.0232323
0.0116162 0.00656566 0.0242424
0.0116162 0.00656566 0.0252525
0.0116162 0.00656566 0.0262626
0.0116162 0.00656566 0.0272727
0.0116162 0.00656566 0.0282828
0.0116162 0.00656566 0.0292929
0.0116162 0.00656566 0.030303
0.0116162 0.00656566 0.0313131
0.0116162 0.00656566 0.0323232
0.0116162 0.00656566 0.0333333
0.0116162 0.00656566 0.0343434
0.0116162 0.00656566 0.0353535
0.0116162 0.00656566 0.0363636
0.0116162 0.00656566 0.10101
0.0116162 0.00757576 0
0.0116162 0.00757576 0.0010101
0.0116162 0.00757576 0.0020202
0.0116162 0.00757576 0.0030303
0.0116162 0.00757576 0.0040404
0.0116162 0.00757576 0.00505051
0.0116162 0.00757576 0.00606061
0.0116162 0.00757576 0.00707071
0.0116162 0.00757576 0.00808081
0.0116162 0.00757576 0.00909091
0.0116162 0.00757576 0.010101
0.0116162 0.00757576 0.0111111
0.0116162 0.00757576 0.0121212
0.0116162 0.00757576 0.0131313
0.0116162 0.00757576 0.0141414
0.0116162 0.00757576 0.0151515
0.0116162 0.00757576 0.0161616
0.0116162 0.00757576 0.0171717
0.0116162 0.00757576 0.0181818
0.0116162 0.00757576 0.0191919
0.0116162 0.00757576 0.020202
0.0116162 0.00757576 0.0212121
0.0116162 0.00757576 0.0222222
0.0116162 0.00757576 0.0232323
0.0116162 0.00757576 0.0242424
0.0116162 0.00757576 0.0252525
0.0116162 0.00757576 0.0262626
0.0116162 0.00757576 0.0272727
0.0116162 0.00757576 0.0282828
0.0116162 0.00757576 0.0292929
0.0116162 0.00757576 0.030303
0.0116162 0.00757576 0.0313131
0.0116162 0.00757576 0.0323232
0.0116162 0.00757576 0.0333333
0.0116162 0.00757576 0.0343434
0.0116162 0.00757576 0.0353535
0.0116162 0.00757576 0.0363636
0.0116162 0.00757576 0.10101
0.0116162 0.00858586 0
0.0116162 0.00858586 0.0010101
0.0116162 0.00858586 0.0020202
0.0116162 0.00858586 0.0030303
0.0116162 0.00858586 0.0040404
0.0116162 0.00858586 0.00505051
0.0116162 0.00858586 0.00606061
0.0116162 0.00858586 0.00707071
0.0116162 0.00858586 0.00808081
0.0116162 0.00858586 0.00909091
0.0116162 0.00858586 0.010101
0.0116162 0.00858586 0.0111111
0.0116162 0.00858586 0.0121212
0.0116162 0.00858586 0.0131313
0.0116162 0.00858586 0.0141414
0.0116162 0.00858586 0.0151515
0.0116162 0.00858586 0.0161616
0.0116162 0.00858586 0.0171717
0.0116162 0.00858586 0.0181818
0.0116162 0.00858586 0.0191919
0.0116162 0.00858586 0.020202
0.0116162 0.00858586 0.0212121
0.0116162 0.00858586 0.0222222
0.0116162 0.00858586 0.0232323
0.0116162 0.00858586 0.0242424
0.0116162 0.00858586 0.0252525
0.0116162 0.00858586 0.0262626
0.0116162 0.00858586 0.0272727
0.0116162 0.00858586 0.0282828
0.0116162 0.00858586 0.0292929
0.0116162 0.00858586 0.030303
0.0116162 0.00858586 0.0313131
0.0116162 0.00858586 0.0323232
0.0116162 0.00858586 0.0333333
0.0116162 0.00858586 0.0343434
0.0116162 0.00858586 0.0353535
0.0116162 0.00858586 0.0363636
0.0116162 0.00858586 0.10101
0.0116162 0.00959596 0
0.0116162 0.00959596 0.0010101
0.0116162 0.00959596 0.0020202
0.0116162 0.00959596 0.0030303
0.0116162 0.00959596 0.0040404
0.0116162 0.00959596 0.00505051
0.0116162 0.00959596 0.00606061
0.0116162 0.00959596 0.00707071
0.0116162 0.00959596 0.00808081
0.0116162 0.00959596 0.00909091
0.0116162 0.00959596 0.010101
0.0116162 0.00959596 0.0111111
0.0116162 0.00959596 0.0121212
0.0116162 0.00959596 0.0131313
0.0116162 0.00959596 0.0141414
0.0116162 0.00959596 0.0151515
0.0116162 0.00959596 0.0161616
0.0116162 0.00959596 0.0171717
0.0116162 0.00959596 0.0181818
0.0116162 0.00959596 0.0191919
0.0116162 0.00959596 0.020202
0.0116162 0.00959596 0.0212121
0.0116162 0.00959596 0.0222222
0.0116162 0.00959596 0.0232323
0.0116162 0.00959596 0.0242424
0.0116162 0.00959596 0.0252525
0.0116162 0.00959596 0.0262626
0.0116162 0.00959596 0.0272727
0.0116162 0.00959596 0.0282828
0.0116162 0.00959596 0.0292929
0.0116162 0.00959596 0.030303
0.0116162 0.00959596 0.0313131
0.0116162 0.00959596 0.0323232
0.0116162 0.00959596 0.0333333
0.0116162 0.00959596 0.0343434
0.0116162 0.00959596 0.0353535
0.0116162 0.00959596 0.0363636
0.0116162 0.00959596 0.10101
0.0116162 0.0106061 0
0.0116162 0.0106061 0.0010101
0.0116162 0.0106061 0.0020202
0.0116162 0.0106061 0.0030303
0.0116162 0.0106061 0.0040404
0.0116162 0.0106061 0.00505051
0.0116162 0.0106061 0.00606061
0.0116162 0.0106061 0.00707071
0.0116162 0.0106061 0.00808081
0.0116162 0.0106061 0.00909091
0.0116162 0.0106061 0.010101
0.0116162 0.0106061 0.0111111
0.0116162 0.0106061 0.0121212
0.0116162 0.0106061 0.0131313
0.0116162 0.0106061 0.0141414
0.0116162 0.0106061 0.0151515
0.0116162 0.0106061 0.0161616
0.0116162 0.0106061 0.0171717
0.0116162 0.0106061 0.0181818
0.0116162 0.0106061 0.0191919
0.0116162 0.0106061 0.020202
0.0116162 0.0106061 0.0212121
0.0116162 0.0106061 0.0222222
0.0116162 0.0106061 0.0232323
0.0116162 0.0106061 0.0242424
0.0116162 0.0106061 0.0252525
0.0116162 0.0106061 0.0262626
0.0116162 0.0106061 0.0272727
0.0116162 0.0106061 0.0282828
0.0116162 0.0106061 0.0292929
0.0116162 0.0106061 0.030303
0.0116162 0.0106061 0.0313131
0.0116162 0.0106061 0.0323232
0.0116162 0.0106061 0.0333333
0.0116162 0.0106061 0.0343434
0.0116162 0.0106061 0.0353535
0.0116162 0.0106061 0.0363636
0.0116162 0.0106061 0.10101
0.0116162 0.0116162 0
0.0116162 0.0116162 0.0010101
0.0116162 0.0116162 0.0020202
0.0116162 0.0116162 0.0030303
0.0116162 0.0116162 0.0040404
0.0116162 0.0116162 0.00505051
0.0116162 0.0116162 0.00606061
0.0116162 0.0116162 0.00707071
0.0116162 0.0116162 0.00808081
0.0116162 0.0116162 0.00909091
0.0116162 0.0116162 0.010101
0.0116162 0.0116162 0.0111111
0.0116162 0.0116162 0.0121212
0.0116162 0.0116162 0.0131313
0.0116162 0.0116162 0.0141414
0.0116162 0.0116162 0.0151515
0.0116162 0.0116162 0.0161616
0.0116162 0.0116162 0.0171717
0.0116162 0.0116162 0.0181818
0.0116162 0.0116162 0.0191919
0.0116162 0.0116162 0.020202
0.0116162 0.0116162 0.0212121
0.0116162 0.0116162 0.0222222
0.0116162 0.0116162 0.0232323
0.0116162 0.0116162 0.0242424
0.0116162 0.0116162 0.0252525
0.0116162 0.0116162 0.0262626
0.0116162 0.0116162 0.0272727
0.0116162 0.0116162 0.0282828
0.0116162 0.0116162 0.0292929
0.0116162 0.0116162 0.030303
0.0116162 0.0116162 0.0313131
0.0116162 0.0116162 0.0323232
0.0116162 0.0116162 0.0333333
0.0116162 0.0116162 0.0343434
0.0116162 0.0116162 0.0353535
0.0116162 0.0116162 0.0363636
0.0116162 0.0116162 0.10101
0.0116162 0.0126263 0
0.0116162 0.0126263 0.0010101
0.0116162 0.0126263 0.0020202
0.0116162 0.0126263 0.0030303
0.0116162 0.0126263 0.0040404
0.0116162 0.0126263 0.00505051
0.0116162 0.0126263 0.00606061
0.0116162 0.0126263 0.00707071
0.0116162 0.0126263 0.00808081
0.0116162 0.0126263 0.00909091
0.0116162 0.0126263 0.010101
0.0116162 0.0126263 0.0111111
0.0116162 0.0126263 0.0121212
0.0116162 0.0126263 0.0131313
0.0116162 0.0126263 0.0141414
0.0116162 0.0126263 0.0151515
0.0116162 0.0126263 0.0161616
0.0116162 0.0126263 0.0171717
0.0116162 0.0126263 0.0181818
0.0116162 0.0126263 0.0191919
0.0116162 0.0126263 0.020202
0.0116162 0.0126263 0.0212121
0.0116162 0.0126263 0.0222222
0.0116162 0.0126263 0.0232323
0.0116162 0.0126263 0.0242424
0.0116162 0.0126263 0.0252525
0.0116162 0.0126263 0.0262626
0.0116162 0.0126263 0.0272727
0.0116162 0.0126263 0.0282828
0.0116162 0.0126263 0.0292929
0.0116162 0.0126263 0.030303
0.0116162 0.0126263 0.0313131
0.0116162 0.0126263 0.0323232
0.0116162 0.0126263 0.0333333
0.0116162 0.0126263 0.0343434
0.0116162 0.0126263 0.0353535
0.0116162 0.0126263 0.10101
0.0116162 0.0136364 0
0.0116162 0.0136364 0.0010101
0.0116162 0.0136364 0.0020202
0.0116162 0.0136364 0.0030303
0.0116162 0.0136364 0.0040404
0.0116162 0.0136364 0.00505051
0.0116162 0.0136364 0.00606061
0.0116162 0.0136364 0.00707071
0.0116162 0.0136364 0.00808081
0.0116162 0.0136364 0.00909091
0.0116162 0.0136364 0.010101
0.0116162 0.0136364 0.0111111
0.0116162 0.0136364 0.0121212
0.0116162 0.0136364 0.0131313
0.0116162 0.0136364 0.0141414
0.0116162 0.0136364 0.0151515
0.0116162 0.0136364 0.0161616
0.0116162 0.0136364 0.0171717
0.0116162 0.0136364 0.0181818
0.0116162 0.0136364 0.0191919
0.0116162 0.0136364 0.020202
0.0116162 0.0136364 0.0212121
0.0116162 0.0136364 0.0222222
0.0116162 0.0136364 0.0232323
0.0116162 0.0136364 0.0242424
0.0116162 0.0136364 0.0252525
0.0116162 0.0136364 0.0262626
0.0116162 0.0136364 0.0272727
0.0116162 0.0136364 0.0282828
0.0116162 0.0136364 0.0292929
0.0116162 0.0136364 0.030303
0.0116162 0.0136364 0.0313131
0.0116162 0.0136364 0.0323232
0.0116162 0.0136364 0.0333333
0.0116162 0.0136364 0.0343434
0.0116162 0.0136364 0.0353535
0.0116162 0.0136364 0.10101
0.0116162 0.0146465 0
0.0116162 0.0146465 0.0010101
0.0116162 0.0146465 0.0020202
0.0116162 0.0146465 0.0030303
0.0116162 0.0146465 0.0040404
0.0116162 0.0146465 0.00505051
0.0116162 0.0146465 0.00606061
0.0116162 0.0146465 0.00707071
0.0116162 0.0146465 0.00808081
0.0116162 0.0146465 0.00909091
0.0116162 0.0146465 0.010101
0.0116162 0.0146465 0.0111111
0.0116162 0.0146465 0.0121212
0.0116162 0.0146465 0.0131313
0.0116162 0.0146465 0.0141414
0.0116162 0.0146465 0.0151515
0.0116162 0.0146465 0.0161616
0.0116162 0.0146465 0.0171717
0.0116162 0.0146465 0.0181818
0.0116162 0.0146465 0.0191919
0.0116162 0.0146465 0.020202
0.0116162 0.0146465 0.0212121
0.0116162 0.0146465 0.0222222
0.0116162 0.0146465 0.0232323
0.0116162 0.0146465 0.0242424
0.0116162 0.0146465 0.0252525
0.0116162 0.0146465 0.0262626
0.0116162 0.0146465 0.0272727
0.0116162 0.0146465 0.0282828
0.0116162 0.0146465 0.0292929
0.0116162 0.0146465 0.030303
0.0116162 0.0146465 0.0313131
0.0116162 0.0146465 0.0323232
0.0116162 0.0146465 0.0333333
0.0116162 0.0146465 0.0343434
0.0116162 0.0146465 0.0353535
0.0116162 0.0146465 0.10101
0.0116162 0.0156566 0
0.0116162 0.0156566 0.0010101
0.0116162 0.0156566 0.0020202
0.0116162 0.0156566 0.0030303
0.0116162 0.0156566 0.0040404
0.0116162 0.0156566 0.00505051
0.0116162 0.0156566 0.00606061
0.0116162 0.0156566 0.00707071
0.0116162 0.0156566 0.00808081
0.0116162 0.0156566 0.00909091
0.0116162 0.0156566 0.010101
0.0116162 0.0156566 0.0111111
0.0116162 0.0156566 0.0121212
0.0116162 0.0156566 0.0131313
0.0116162 0.0156566 0.0141414
0.0116162 0.0156566 0.0151515
0.0116162 0.0156566 0.0161616
0.0116162 0.0156566 0.0171717
0.0116162 0.0156566 0.0181818
0.0116162 0.0156566 0.0191919
0.0116162 0.0156566 0.020202
0.0116162 0.0156566 0.0212121
0.0116162 0.0156566 0.0222222
0.0116162 0.0156566 0.0232323
0.0116162 0.0156566 0.0242424
0.0116162 0.0156566 0.0252525
0.0116162 0.0156566 0.0262626
0.0116162 0.0156566 0.0272727
0.0116162 0.0156566 0.0282828
0.0116162 0.0156566 0.0292929
0.0116162 0.0156566 0.030303
0.0116162 0.0156566 0.0313131
0.0116162 0.0156566 0.0323232
0.0116162 0.0156566 0.0333333
0.0116162 0.0156566 0.0343434
0.0116162 0.0156566 0.10101
0.0116162 0.0166667 0
0.0116162 0.0166667 0.0010101
0.0116162 0.0166667 0.0020202
0.0116162 0.0166667 0.0030303
0.0116162 0.0166667 0.0040404
0.0116162 0.0166667 0.00505051
0.0116162 0.0166667 0.00606061
0.0116162 0.0166667 0.00707071
0.0116162 0.0166667 0.00808081
0.0116162 0.0166667 0.00909091
0.0116162 0.0166667 0.010101
0.0116162 0.0166667 0.0111111
0.0116162 0.0166667 0.0121212
0.0116162 0.0166667 0.0131313
0.0116162 0.0166667 0.0141414
0.0116162 0.0166667 0.0151515
0.0116162 0.0166667 0.0161616
0.0116162 0.0166667 0.0171717
0.0116162 0.0166667 0.0181818
0.0116162 0.0166667 0.0191919
0.0116162 0.0166667 0.020202
0.0116162 0.0166667 0.0212121
0.0116162 0.0166667 0.0222222
0.0116162 0.0166667 0.0232323
0.0116162 0.0166667 0.0242424
0.0116162 0.0166667 0.0252525
0.0116162 0.0166667 0.0262626
0.0116162 0.0166667 0.0272727
0.0116162 0.0166667 0.0282828
0.0116162 0.0166667 0.0292929
0.0116162 0.0166667 0.030303
0.0116162 0.0166667 0.0313131
0.0116162 0.0166667 0.0323232
0.0116162 0.0166667 0.0333333
0.0116162 0.0166667 0.0343434
0.0116162 0.0166667 0.10101
0.0116162 0.0176768 0
0.0116162 0.0176768 0.0010101
0.0116162 0.0176768 0.0020202
0.0116162 0.0176768 0.0030303
0.0116162 0.0176768 0.0040404
0.0116162 0.0176768 0.00505051
0.0116162 0.0176768 0.00606061
0.0116162 0.0176768 0.00707071
0.0116162 0.0176768 0.00808081
0.0116162 0.0176768 0.00909091
0.0116162 0.0176768 0.010101
0.0116162 0.0176768 0.0111111
0.0116162 0.0176768 0.0121212
0.0116162 0.0176768 0.0131313
0.0116162 0.0176768 0.0141414
0.0116162 0.0176768 0.0151515
0.0116162 0.0176768 0.0161616
0.0116162 0.0176768 0.0171717
0.0116162 0.0176768 0.0181818
0.0116162 0.0176768 0.0191919
0.0116162 0.0176768 0.020202
0.0116162 0.0176768 0.0212121
0.0116162 0.0176768 0.0222222
0.0116162 0.0176768 0.0232323
0.0116162 0.0176768 0.0242424
0.0116162 0.0176768 0.0252525
0.0116162 0.0176768 0.0262626
0.0116162 0.0176768 0.0272727
0.0116162 0.0176768 0.0282828
0.0116162 0.0176768 0.0292929
0.0116162 0.0176768 0.030303
0.0116162 0.0176768 0.0313131
0.0116162 0.0176768 0.0323232
0.0116162 0.0176768 0.0333333
0.0116162 0.0176768 0.10101
0.0116162 0.0186869 0
0.0116162 0.0186869 0.0010101
0.0116162 0.0186869 0.0020202
0.0116162 0.0186869 0.0030303
0.0116162 0.0186869 0.0040404
0.0116162 0.0186869 0.00505051
0.0116162 0.0186869 0.00606061
0.0116162 0.0186869 0.00707071
0.0116162 0.0186869 0.00808081
0.0116162 0.0186869 0.00909091
0.0116162 0.0186869 0.010101
0.0116162 0.0186869 0.0111111
0.0116162 0.0186869 0.0121212
0.0116162 0.0186869 0.0131313
0.0116162 0.0186869 0.0141414
0.0116162 0.0186869 0.0151515
0.0116162 0.0186869 0.0161616
0.0116162 0.0186869 0.0171717
0.0116162 0.0186869 0.0181818
0.0116162 0.0186869 0.0191919
0.0116162 0.0186869 0.020202
0.0116162 0.0186869 0.0212121
0.0116162 0.0186869 0.0222222
0.0116162 0.0186869 0.0232323
0.0116162 0.0186869 0.0242424
0.0116162 0.0186869 0.0252525
0.0116162 0.0186869 0.0262626
0.0116162 0.0186869 0.0272727
0.0116162 0.0186869 0.0282828
0.0116162 0.0186869 0.0292929
0.0116162 0.0186869 0.030303
0.0116162 0.0186869 0.0313131
0.0116162 0.0186869 0.0323232
0.0116162 0.0186869 0.10101
0.0116162 0.019697 0
0.0116162 0.019697 0.0010101
0.0116162 0.019697 0.0020202
0.0116162 0.019697 0.0030303
0.0116162 0.019697 0.0040404
0.0116162 0.019697 0.00505051
0.0116162 0.019697 0.00606061
0.0116162 0.019697 0.00707071
0.0116162 0.019697 0.00808081
0.0116162 0.019697 0.00909091
0.0116162 0.019697 0.010101
0.0116162 0.019697 0.0111111
0.0116162 0.019697 0.0121212
0.0116162 0.019697 0.0131313
0.0116162 0.019697 0.0141414
0.0116162 0.019697 0.0151515
0.0116162 0.019697 0.0161616
0.0116162 0.019697 0.0171717
0.0116162 0.019697 0.0181818
0.0116162 0.019697 0.0191919
0.0116162 0.019697 0.020202
0.0116162 0.019697 0.0212121
0.0116162 0.019697 0.0222222
0.0116162 0.019697 0.0232323
0.0116162 0.019697 0.0242424
0.0116162 0.019697 0.0252525
0.0116162 0.019697 0.0262626
0.0116162 0.019697 0.0272727
0.0116162 0.019697 0.0282828
0.0116162 0.019697 0.0292929
0.0116162 0.019697 0.030303
0.0116162 0.019697 0.0313131
0.0116162 0.019697 0.0323232
0.0116162 0.0207071 0.0010101
0.0116162 0.0207071 0.0020202
0.0116162 0.0207071 0.0030303
0.0116162 0.0207071 0.0040404
0.0116162 0.0207071 0.00505051
0.0116162 0.0207071 0.00606061
0.0116162 0.0207071 0.00707071
0.0116162 0.0207071 0.00808081
0.0116162 0.0207071 0.00909091
0.0116162 0.0207071 0.010101
0.0116162 0.0207071 0.0111111
0.0116162 0.0207071 0.0121212
0.0116162 0.0207071 0.0131313
0.0116162 0.0207071 0.0141414
0.0116162 0.0207071 0.0151515
0.0116162 0.0207071 0.0161616
0.0116162 0.0207071 0.0171717
0.0116162 0.0207071 0.0181818
0.0116162 0.0207071 0.0191919
0.0116162 0.0207071 0.020202
0.0116162 0.0207071 0.0212121
0.0116162 0.0207071 0.0222222
0.0116162 0.0207071 0.0232323
0.0116162 0.0207071 0.0242424
0.0116162 0.0207071 0.0252525
0.0116162 0.0207071 0.0262626
0.0116162 0.0207071 0.0272727
0.0116162 0.0207071 0.0282828
0.0116162 0.0207071 0.0292929
0.0116162 0.0207071 0.030303
0.0116162 0.0207071 0.0313131
0.0116162 0.0217172 0.0010101
0.0116162 0.0217172 0.0020202
0.0116162 0.0217172 0.0030303
0.0116162 0.0217172 0.0040404
0.0116162 0.0217172 0.00505051
0.0116162 0.0217172 0.00606061
0.0116162 0.0217172 0.00707071
0.0116162 0.0217172 0.00808081
0.0116162 0.0217172 0.00909091
0.0116162 0.0217172 0.010101
0.0116162 0.0217172 0.0111111
0.0116162 0.0217172 0.0121212
0.0116162 0.0217172 0.0131313
0.0116162 0.0217172 0.0141414
0.0116162 0.0217172 0.0151515
0.0116162 0.0217172 0.0161616
0.0116162 0.0217172 0.0171717
0.0116162 0.0217172 0.0181818
0.0116162 0.0217172 0.0191919
0.0116162 0.0217172 0.020202
0.0116162 0.0217172 0.0212121
0.0116162 0.0217172 0.0222222
0.0116162 0.0217172 0.0232323
0.0116162 0.0217172 0.0242424
0.0116162 0.0217172 0.0252525
0.0116162 0.0217172 0.0262626
0.0116162 0.0217172 0.0272727
0.0116162 0.0217172 0.0282828
0.0116162 0.0217172 0.0292929
0.0116162 0.0217172 0.030303
0.0116162 0.0227273 0.0030303
0.0116162 0.0227273 0.0040404
0.0116162 0.0227273 0.00505051
0.0116162 0.0227273 0.00606061
0.0116162 0.0227273 0.00707071
0.0116162 0.0227273 0.00808081
0.0116162 0.0227273 0.00909091
0.0116162 0.0227273 0.010101
0.0116162 0.0227273 0.0111111
0.0116162 0.0227273 0.0121212
0.0116162 0.0227273 0.0131313
0.0116162 0.0227273 0.0141414
0.0116162 0.0227273 0.0151515
0.0116162 0.0227273 0.0161616
0.0116162 0.0227273 0.0171717
0.0116162 0.0227273 0.0181818
0.0116162 0.0227273 0.0191919
0.0116162 0.0227273 0.020202
0.0116162 0.0227273 0.0212121
0.0116162 0.0227273 0.0222222
0.0116162 0.0227273 0.0232323
0.0116162 0.0227273 0.0242424
0.0116162 0.0227273 0.0252525
0.0116162 0.0227273 0.0262626
0.0116162 0.0227273 0.0272727
0.0116162 0.0227273 0.0282828
0.0116162 0.0237374 0.0040404
0.0116162 0.0237374 0.00505051
0.0116162 0.0237374 0.00606061
0.0116162 0.0237374 0.00707071
0.0116162 0.0237374 0.00808081
0.0116162 0.0237374 0.00909091
0.0116162 0.0237374 0.010101
0.0116162 0.0237374 0.0111111
0.0116162 0.0237374 0.0121212
0.0116162 0.0237374 0.0131313
0.0116162 0.0237374 0.0141414
0.0116162 0.0237374 0.0151515
0.0116162 0.0237374 0.0161616
0.0116162 0.0237374 0.0171717
0.0116162 0.0237374 0.0181818
0.0116162 0.0237374 0.0191919
0.0116162 0.0237374 0.020202
0.0116162 0.0237374 0.0212121
0.0116162 0.0237374 0.0222222
0.0116162 0.0237374 0.0232323
0.0116162 0.0237374 0.0242424
0.0116162 0.0237374 0.0252525
0.0116162 0.0237374 0.0262626
0.0116162 0.0247475 0.00707071
0.0116162 0.0247475 0.00808081
0.0116162 0.0247475 0.00909091
0.0116162 0.0247475 0.010101
0.0116162 0.0247475 0.0111111
0.0116162 0.0247475 0.0121212
0.0116162 0.0247475 0.0131313
0.0116162 0.0247475 0.0141414
0.0116162 0.0247475 0.0151515
0.0116162 0.0247475 0.0161616
0.0116162 0.0247475 0.0171717
0.0116162 0.0247475 0.0181818
0.0116162 0.0247475 0.0191919
0.0116162 0.0247475 0.020202
0.0116162 0.0247475 0.0212121
0.0116162 0.0247475 0.0222222
0.0116162 0.0247475 0.0232323
0.0116162 0.0247475 0.0242424
0.0116162 0.0247475 0.0252525
0.0116162 0.0257576 0.010101
0.0116162 0.0257576 0.0111111
0.0116162 0.0257576 0.0121212
0.0116162 0.0257576 0.0131313
0.0116162 0.0257576 0.0141414
0.0116162 0.0257576 0.0151515
0.0116162 0.0257576 0.0161616
0.0116162 0.0257576 0.0171717
0.0116162 0.0257576 0.0181818
0.0116162 0.0257576 0.0191919
0.0116162 0.0257576 0.020202
0.0116162 0.0257576 0.0212121
0.0116162 0.0257576 0.0222222
0.0116162 0.0257576 0.0232323
0.0126263 -0.029798 0.0111111
0.0126263 -0.029798 0.0121212
0.0126263 -0.029798 0.0131313
0.0126263 -0.029798 0.0141414
0.0126263 -0.029798 0.0151515
0.0126263 -0.029798 0.0161616
0.0126263 -0.0287879 0.00808081
0.0126263 -0.0287879 0.00909091
0.0126263 -0.0287879 0.010101
0.0126263 -0.0287879 0.0111111
0.0126263 -0.0287879 0.0121212
0.0126263 -0.0287879 0.0131313
0.0126263 -0.0287879 0.0141414
0.0126263 -0.0287879 0.0151515
0.0126263 -0.0287879 0.0161616
0.0126263 -0.0287879 0.0171717
0.0126263 -0.0277778 0.00606061
0.0126263 -0.0277778 0.00707071
0.0126263 -0.0277778 0.00808081
0.0126263 -0.0277778 0.00909091
0.0126263 -0.0277778 0.010101
0.0126263 -0.0277778 0.0111111
0.0126263 -0.0277778 0.0121212
0.0126263 -0.0277778 0.0131313
0.0126263 -0.0277778 0.0141414
0.0126263 -0.0277778 0.0151515
0.0126263 -0.0277778 0.0161616
0.0126263 -0.0277778 0.0171717
0.0126263 -0.0277778 0.0181818
0.0126263 -0.0267677 0.00505051
0.0126263 -0.0267677 0.00606061
0.0126263 -0.0267677 0.00707071
0.0126263 -0.0267677 0.00808081
0.0126263 -0.0267677 0.00909091
0.0126263 -0.0267677 0.010101
0.0126263 -0.0267677 0.0111111
0.0126263 -0.0267677 0.0121212
0.0126263 -0.0267677 0.0131313
0.0126263 -0.0267677 0.0141414
0.0126263 -0.0267677 0.0151515
0.0126263 -0.0267677 0.0161616
0.0126263 -0.0267677 0.0171717
0.0126263 -0.0267677 0.0181818
0.0126263 -0.0267677 0.0191919
0.0126263 -0.0257576 0.00505051
0.0126263 -0.0257576 0.00606061
0.0126263 -0.0257576 0.00707071
0.0126263 -0.0257576 0.00808081
0.0126263 -0.0257576 0.00909091
0.0126263 -0.0257576 0.010101
0.0126263 -0.0257576 0.0111111
0.0126263 -0.0257576 0.0121212
0.0126263 -0.0257576 0.0131313
0.0126263 -0.0257576 0.0141414
0.0126263 -0.0257576 0.0151515
0.0126263 -0.0257576 0.0161616
0.0126263 -0.0257576 0.0171717
0.0126263 -0.0257576 0.0181818
0.0126263 -0.0257576 0.0191919
0.0126263 -0.0247475 0.0040404
0.0126263 -0.0247475 0.00505051
0.0126263 -0.0247475 0.00606061
0.0126263 -0.0247475 0.00707071
0.0126263 -0.0247475 0.00808081
0.0126263 -0.0247475 0.00909091
0.0126263 -0.0247475 0.010101
0.0126263 -0.0247475 0.0111111
0.0126263 -0.0247475 0.0121212
0.0126263 -0.0247475 0.0131313
0.0126263 -0.0247475 0.0141414
0.0126263 -0.0247475 0.0151515
0.0126263 -0.0247475 0.0161616
0.0126263 -0.0247475 0.0171717
0.0126263 -0.0247475 0.0181818
0.0126263 -0.0247475 0.0191919
0.0126263 -0.0247475 0.020202
0.0126263 -0.0237374 0.0040404
0.0126263 -0.0237374 0.00505051
0.0126263 -0.0237374 0.00606061
0.0126263 -0.0237374 0.00707071
0.0126263 -0.0237374 0.00808081
0.0126263 -0.0237374 0.00909091
0.0126263 -0.0237374 0.010101
0.0126263 -0.0237374 0.0111111
0.0126263 -0.0237374 0.0121212
0.0126263 -0.0237374 0.0131313
0.0126263 -0.0237374 0.0141414
0.0126263 -0.0237374 0.0151515
0.0126263 -0.0237374 0.0161616
0.0126263 -0.0237374 0.0171717
0.0126263 -0.0237374 0.0181818
0.0126263 -0.0237374 0.0191919
0.0126263 -0.0237374 0.020202
0.0126263 -0.0237374 0.0212121
0.0126263 -0.0227273 0.0030303
0.0126263 -0.0227273 0.0040404
0.0126263 -0.0227273 0.00505051
0.0126263 -0.0227273 0.00606061
0.0126263 -0.0227273 0.00707071
0.0126263 -0.0227273 0.00808081
0.0126263 -0.0227273 0.00909091
0.0126263 -0.0227273 0.010101
0.0126263 -0.0227273 0.0111111
0.0126263 -0.0227273 0.0121212
0.0126263 -0.0227273 0.0131313
0.0126263 -0.0227273 0.0141414
0.0126263 -0.0227273 0.0151515
0.0126263 -0.0227273 0.0161616
0.0126263 -0.0227273 0.0171717
0.0126263 -0.0227273 0.0181818
0.0126263 -0.0227273 0.0191919
0.0126263 -0.0227273 0.020202
0.0126263 -0.0227273 0.0212121
0.0126263 -0.0227273 0.0222222
0.0126263 -0.0217172 0.0030303
0.0126263 -0.0217172 0.0040404
0.0126263 -0.0217172 0.00505051
0.0126263 -0.0217172 0.00606061
0.0126263 -0.0217172 0.00707071
0.0126263 -0.0217172 0.00808081
0.0126263 -0.0217172 0.00909091
0.0126263 -0.0217172 0.010101
0.0126263 -0.0217172 0.0111111
0.0126263 -0.0217172 0.0121212
0.0126263 -0.0217172 0.0131313
0.0126263 -0.0217172 0.0141414
0.0126263 -0.0217172 0.0151515
0.0126263 -0.0217172 0.0161616
0.0126263 -0.0217172 0.0171717
0.0126263 -0.0217172 0.0181818
0.0126263 -0.0217172 0.0191919
0.0126263 -0.0217172 0.020202
0.0126263 -0.0217172 0.0212121
0.0126263 -0.0217172 0.0222222
0.0126263 -0.0217172 0.0232323
0.0126263 -0.0207071 0.0020202
0.0126263 -0.0207071 0.0030303
0.0126263 -0.0207071 0.0040404
0.0126263 -0.0207071 0.00505051
0.0126263 -0.0207071 0.00606061
0.0126263 -0.0207071 0.00707071
0.0126263 -0.0207071 0.00808081
0.0126263 -0.0207071 0.00909091
0.0126263 -0.0207071 0.010101
0.0126263 -0.0207071 0.0111111
0.0126263 -0.0207071 0.0121212
0.0126263 -0.0207071 0.0131313
0.0126263 -0.0207071 0.0141414
0.0126263 -0.0207071 0.0151515
0.0126263 -0.0207071 0.0161616
0.0126263 -0.0207071 0.0171717
0.0126263 -0.0207071 0.0181818
0.0126263 -0.0207071 0.0191919
0.0126263 -0.0207071 0.020202
0.0126263 -0.0207071 0.0212121
0.0126263 -0.0207071 0.0222222
0.0126263 -0.0207071 0.0232323
0.0126263 -0.0207071 0.0242424
0.0126263 -0.019697 0.0020202
0.0126263 -0.019697 0.0030303
0.0126263 -0.019697 0.0040404
0.0126263 -0.019697 0.00505051
0.0126263 -0.019697 0.00606061
0.0126263 -0.019697 0.00707071
0.0126263 -0.019697 0.00808081
0.0126263 -0.019697 0.00909091
0.0126263 -0.019697 0.010101
0.0126263 -0.019697 0.0111111
0.0126263 -0.019697 0.0121212
0.0126263 -0.019697 0.0131313
0.0126263 -0.019697 0.0141414
0.0126263 -0.019697 0.0151515
0.0126263 -0.019697 0.0161616
0.0126263 -0.019697 0.0171717
0.0126263 -0.019697 0.0181818
0.0126263 -0.019697 0.0191919
0.0126263 -0.019697 0.020202
0.0126263 -0.019697 0.0212121
0.0126263 -0.019697 0.0222222
0.0126263 -0.019697 0.0232323
0.0126263 -0.019697 0.0242424
0.0126263 -0.019697 0.0252525
0.0126263 -0.0186869 0.0020202
0.0126263 -0.0186869 0.0030303
0.0126263 -0.0186869 0.0040404
0.0126263 -0.0186869 0.00505051
0.0126263 -0.0186869 0.00606061
0.0126263 -0.0186869 0.00707071
0.0126263 -0.0186869 0.00808081
0.0126263 -0.0186869 0.00909091
0.0126263 -0.0186869 0.010101
0.0126263 -0.0186869 0.0111111
0.0126263 -0.0186869 0.0121212
0.0126263 -0.0186869 0.0131313
0.0126263 -0.0186869 0.0141414
0.0126263 -0.0186869 0.0151515
0.0126263 -0.0186869 0.0161616
0.0126263 -0.0186869 0.0171717
0.0126263 -0.0186869 0.0181818
0.0126263 -0.0186869 0.0191919
0.0126263 -0.0186869 0.020202
0.0126263 -0.0186869 0.0212121
0.0126263 -0.0186869 0.0222222
0.0126263 -0.0186869 0.0232323
0.0126263 -0.0186869 0.0242424
0.0126263 -0.0186869 0.0252525
0.0126263 -0.0176768 0.0010101
0.0126263 -0.0176768 0.0020202
0.0126263 -0.0176768 0.0030303
0.0126263 -0.0176768 0.0040404
0.0126263 -0.0176768 0.00505051
0.0126263 -0.0176768 0.00606061
0.0126263 -0.0176768 0.00707071
0.0126263 -0.0176768 0.00808081
0.0126263 -0.0176768 0.00909091
0.0126263 -0.0176768 0.010101
0.0126263 -0.0176768 0.0111111
0.0126263 -0.0176768 0.0121212
0.0126263 -0.0176768 0.0131313
0.0126263 -0.0176768 0.0141414
0.0126263 -0.0176768 0.0151515
0.0126263 -0.0176768 0.0161616
0.0126263 -0.0176768 0.0171717
0.0126263 -0.0176768 0.0181818
0.0126263 -0.0176768 0.0191919
0.0126263 -0.0176768 0.020202
0.0126263 -0.0176768 0.0212121
0.0126263 -0.0176768 0.0222222
0.0126263 -0.0176768 0.0232323
0.0126263 -0.0176768 0.0242424
0.0126263 -0.0176768 0.0252525
0.0126263 -0.0176768 0.0262626
0.0126263 -0.0166667 0.0010101
0.0126263 -0.0166667 0.0020202
0.0126263 -0.0166667 0.0030303
0.0126263 -0.0166667 0.0040404
0.0126263 -0.0166667 0.00505051
0.0126263 -0.0166667 0.00606061
0.0126263 -0.0166667 0.00707071
0.0126263 -0.0166667 0.00808081
0.0126263 -0.0166667 0.00909091
0.0126263 -0.0166667 0.010101
0.0126263 -0.0166667 0.0111111
0.0126263 -0.0166667 0.0121212
0.0126263 -0.0166667 0.0131313
0.0126263 -0.0166667 0.0141414
0.0126263 -0.0166667 0.0151515
0.0126263 -0.0166667 0.0161616
0.0126263 -0.0166667 0.0171717
0.0126263 -0.0166667 0.0181818
0.0126263 -0.0166667 0.0191919
0.0126263 -0.0166667 0.020202
0.0126263 -0.0166667 0.0212121
0.0126263 -0.0166667 0.0222222
0.0126263 -0.0166667 0.0232323
0.0126263 -0.0166667 0.0242424
0.0126263 -0.0166667 0.0252525
0.0126263 -0.0166667 0.0262626
0.0126263 -0.0166667 0.0272727
0.0126263 -0.0166667 0.10101
0.0126263 -0.0156566 0
0.0126263 -0.0156566 0.0010101
0.0126263 -0.0156566 0.0020202
0.0126263 -0.0156566 0.0030303
0.0126263 -0.0156566 0.0040404
0.0126263 -0.0156566 0.00505051
0.0126263 -0.0156566 0.00606061
0.0126263 -0.0156566 0.00707071
0.0126263 -0.0156566 0.00808081
0.0126263 -0.0156566 0.00909091
0.0126263 -0.0156566 0.010101
0.0126263 -0.0156566 0.0111111
0.0126263 -0.0156566 0.0121212
0.0126263 -0.0156566 0.0131313
0.0126263 -0.0156566 0.0141414
0.0126263 -0.0156566 0.0151515
0.0126263 -0.0156566 0.0161616
0.0126263 -0.0156566 0.0171717
0.0126263 -0.0156566 0.0181818
0.0126263 -0.0156566 0.0191919
0.0126263 -0.0156566 0.020202
0.0126263 -0.0156566 0.0212121
0.0126263 -0.0156566 0.0222222
0.0126263 -0.0156566 0.0232323
0.0126263 -0.0156566 0.0242424
0.0126263 -0.0156566 0.0252525
0.0126263 -0.0156566 0.0262626
0.0126263 -0.0156566 0.0272727
0.0126263 -0.0156566 0.0282828
